ply
format ascii 1.0
element vertex 525
property float x
property float y
property float z
property int group_id
end_header
0.000000 0.000000 -0.000000 0
0.099972 -0.002356 -0.030902 0
0.199778 -0.009421 -0.061803 0
0.299251 -0.021188 -0.092705 0
0.398225 -0.037643 -0.123607 0
0.496534 -0.058769 -0.154508 0
0.594014 -0.084541 -0.185410 0
0.690500 -0.114931 -0.216312 0
0.785830 -0.149905 -0.247214 0
0.879840 -0.189425 -0.278115 0
0.972370 -0.233445 -0.309017 0
1.063260 -0.281918 -0.339919 0
1.152352 -0.334789 -0.370820 0
1.239490 -0.391999 -0.401722 0
1.324520 -0.453484 -0.432624 0
1.407287 -0.519176 -0.463525 0
1.487642 -0.588999 -0.494427 0
1.565437 -0.662877 -0.525329 0
1.640526 -0.740726 -0.556231 0
1.712765 -0.822458 -0.587132 0
1.782013 -0.907981 -0.618034 0
0.000000 0.000000 -0.000000 1
0.099972 -0.002356 -0.015643 1
0.199778 -0.009421 -0.031287 1
0.299251 -0.021188 -0.046930 1
0.398225 -0.037643 -0.062574 1
0.496534 -0.058769 -0.078217 1
0.594014 -0.084541 -0.093861 1
0.690500 -0.114931 -0.109504 1
0.785830 -0.149905 -0.125148 1
0.879840 -0.189425 -0.140791 1
0.972370 -0.233445 -0.156434 1
1.063260 -0.281918 -0.172078 1
1.152352 -0.334789 -0.187721 1
1.239490 -0.391999 -0.203365 1
1.324520 -0.453484 -0.219008 1
1.407287 -0.519176 -0.234652 1
1.487642 -0.588999 -0.250295 1
1.565437 -0.662877 -0.265939 1
1.640526 -0.740726 -0.281582 1
1.712765 -0.822458 -0.297225 1
1.782013 -0.907981 -0.312869 1
0.000000 0.000000 0.000000 2
0.099972 -0.002356 0.000000 2
0.199778 -0.009421 0.000000 2
0.299251 -0.021188 0.000000 2
0.398225 -0.037643 0.000000 2
0.496534 -0.058769 0.000000 2
0.594014 -0.084541 0.000000 2
0.690500 -0.114931 0.000000 2
0.785830 -0.149905 0.000000 2
0.879840 -0.189425 0.000000 2
0.972370 -0.233445 0.000000 2
1.063260 -0.281918 0.000000 2
1.152352 -0.334789 0.000000 2
1.239490 -0.391999 0.000000 2
1.324520 -0.453484 0.000000 2
1.407287 -0.519176 0.000000 2
1.487642 -0.588999 0.000000 2
1.565437 -0.662877 0.000000 2
1.640526 -0.740726 0.000000 2
1.712765 -0.822458 0.000000 2
1.782013 -0.907981 0.000000 2
0.000000 0.000000 0.000000 3
0.099972 -0.002356 0.015643 3
0.199778 -0.009421 0.031287 3
0.299251 -0.021188 0.046930 3
0.398225 -0.037643 0.062574 3
0.496534 -0.058769 0.078217 3
0.594014 -0.084541 0.093861 3
0.690500 -0.114931 0.109504 3
0.785830 -0.149905 0.125148 3
0.879840 -0.189425 0.140791 3
0.972370 -0.233445 0.156434 3
1.063260 -0.281918 0.172078 3
1.152352 -0.334789 0.187721 3
1.239490 -0.391999 0.203365 3
1.324520 -0.453484 0.219008 3
1.407287 -0.519176 0.234652 3
1.487642 -0.588999 0.250295 3
1.565437 -0.662877 0.265939 3
1.640526 -0.740726 0.281582 3
1.712765 -0.822458 0.297225 3
1.782013 -0.907981 0.312869 3
0.000000 0.000000 0.000000 4
0.099972 -0.002356 0.030902 4
0.199778 -0.009421 0.061803 4
0.299251 -0.021188 0.092705 4
0.398225 -0.037643 0.123607 4
0.496534 -0.058769 0.154508 4
0.594014 -0.084541 0.185410 4
0.690500 -0.114931 0.216312 4
0.785830 -0.149905 0.247214 4
0.879840 -0.189425 0.278115 4
0.972370 -0.233445 0.309017 4
1.063260 -0.281918 0.339919 4
1.152352 -0.334789 0.370820 4
1.239490 -0.391999 0.401722 4
1.324520 -0.453484 0.432624 4
1.407287 -0.519176 0.463525 4
1.487642 -0.588999 0.494427 4
1.565437 -0.662877 0.525329 4
1.640526 -0.740726 0.556231 4
1.712765 -0.822458 0.587132 4
1.782013 -0.907981 0.618034 4
0.000000 0.000000 -0.000000 5
0.099993 -0.001178 -0.030902 5
0.199944 -0.004712 -0.061803 5
0.299813 -0.010601 -0.092705 5
0.399556 -0.018843 -0.123607 5
0.499133 -0.029435 -0.154508 5
0.598502 -0.042376 -0.185410 5
0.697621 -0.057661 -0.216312 5
0.796450 -0.075287 -0.247214 5
0.894946 -0.095247 -0.278115 5
0.993068 -0.117537 -0.309017 5
1.090776 -0.142151 -0.339919 5
1.188028 -0.169081 -0.370820 5
1.284784 -0.198321 -0.401722 5
1.381001 -0.229862 -0.432624 5
1.476640 -0.263694 -0.463525 5
1.571660 -0.299810 -0.494427 5
1.666020 -0.338199 -0.525329 5
1.759680 -0.378849 -0.556231 5
1.852600 -0.421751 -0.587132 5
1.944740 -0.466891 -0.618034 5
0.000000 0.000000 -0.000000 6
0.099993 -0.001178 -0.015643 6
0.199944 -0.004712 -0.031287 6
0.299813 -0.010601 -0.046930 6
0.399556 -0.018843 -0.062574 6
0.499133 -0.029435 -0.078217 6
0.598502 -0.042376 -0.093861 6
0.697621 -0.057661 -0.109504 6
0.796450 -0.075287 -0.125148 6
0.894946 -0.095247 -0.140791 6
0.993068 -0.117537 -0.156434 6
1.090776 -0.142151 -0.172078 6
1.188028 -0.169081 -0.187721 6
1.284784 -0.198321 -0.203365 6
1.381001 -0.229862 -0.219008 6
1.476640 -0.263694 -0.234652 6
1.571660 -0.299810 -0.250295 6
1.666020 -0.338199 -0.265939 6
1.759680 -0.378849 -0.281582 6
1.852600 -0.421751 -0.297225 6
1.944740 -0.466891 -0.312869 6
0.000000 0.000000 0.000000 7
0.099993 -0.001178 0.000000 7
0.199944 -0.004712 0.000000 7
0.299813 -0.010601 0.000000 7
0.399556 -0.018843 0.000000 7
0.499133 -0.029435 0.000000 7
0.598502 -0.042376 0.000000 7
0.697621 -0.057661 0.000000 7
0.796450 -0.075287 0.000000 7
0.894946 -0.095247 0.000000 7
0.993068 -0.117537 0.000000 7
1.090776 -0.142151 0.000000 7
1.188028 -0.169081 0.000000 7
1.284784 -0.198321 0.000000 7
1.381001 -0.229862 0.000000 7
1.476640 -0.263694 0.000000 7
1.571660 -0.299810 0.000000 7
1.666020 -0.338199 0.000000 7
1.759680 -0.378849 0.000000 7
1.852600 -0.421751 0.000000 7
1.944740 -0.466891 0.000000 7
0.000000 0.000000 0.000000 8
0.099993 -0.001178 0.015643 8
0.199944 -0.004712 0.031287 8
0.299813 -0.010601 0.046930 8
0.399556 -0.018843 0.062574 8
0.499133 -0.029435 0.078217 8
0.598502 -0.042376 0.093861 8
0.697621 -0.057661 0.109504 8
0.796450 -0.075287 0.125148 8
0.894946 -0.095247 0.140791 8
0.993068 -0.117537 0.156434 8
1.090776 -0.142151 0.172078 8
1.188028 -0.169081 0.187721 8
1.284784 -0.198321 0.203365 8
1.381001 -0.229862 0.219008 8
1.476640 -0.263694 0.234652 8
1.571660 -0.299810 0.250295 8
1.666020 -0.338199 0.265939 8
1.759680 -0.378849 0.281582 8
1.852600 -0.421751 0.297225 8
1.944740 -0.466891 0.312869 8
0.000000 0.000000 0.000000 9
0.099993 -0.001178 0.030902 9
0.199944 -0.004712 0.061803 9
0.299813 -0.010601 0.092705 9
0.399556 -0.018843 0.123607 9
0.499133 -0.029435 0.154508 9
0.598502 -0.042376 0.185410 9
0.697621 -0.057661 0.216312 9
0.796450 -0.075287 0.247214 9
0.894946 -0.095247 0.278115 9
0.993068 -0.117537 0.309017 9
1.090776 -0.142151 0.339919 9
1.188028 -0.169081 0.370820 9
1.284784 -0.198321 0.401722 9
1.381001 -0.229862 0.432624 9
1.476640 -0.263694 0.463525 9
1.571660 -0.299810 0.494427 9
1.666020 -0.338199 0.525329 9
1.759680 -0.378849 0.556231 9
1.852600 -0.421751 0.587132 9
1.944740 -0.466891 0.618034 9
0.000000 0.000000 -0.000000 10
0.100000 0.000000 -0.030902 10
0.200000 0.000000 -0.061803 10
0.300000 0.000000 -0.092705 10
0.400000 0.000000 -0.123607 10
0.500000 0.000000 -0.154508 10
0.600000 0.000000 -0.185410 10
0.700000 0.000000 -0.216312 10
0.800000 0.000000 -0.247214 10
0.900000 0.000000 -0.278115 10
1.000000 0.000000 -0.309017 10
1.100000 0.000000 -0.339919 10
1.200000 0.000000 -0.370820 10
1.300000 0.000000 -0.401722 10
1.400000 0.000000 -0.432624 10
1.500000 0.000000 -0.463525 10
1.600000 0.000000 -0.494427 10
1.700000 0.000000 -0.525329 10
1.800000 0.000000 -0.556231 10
1.900000 0.000000 -0.587132 10
2.000000 0.000000 -0.618034 10
0.000000 0.000000 -0.000000 11
0.100000 0.000000 -0.015643 11
0.200000 0.000000 -0.031287 11
0.300000 0.000000 -0.046930 11
0.400000 0.000000 -0.062574 11
0.500000 0.000000 -0.078217 11
0.600000 0.000000 -0.093861 11
0.700000 0.000000 -0.109504 11
0.800000 0.000000 -0.125148 11
0.900000 0.000000 -0.140791 11
1.000000 0.000000 -0.156434 11
1.100000 0.000000 -0.172078 11
1.200000 0.000000 -0.187721 11
1.300000 0.000000 -0.203365 11
1.400000 0.000000 -0.219008 11
1.500000 0.000000 -0.234652 11
1.600000 0.000000 -0.250295 11
1.700000 0.000000 -0.265939 11
1.800000 0.000000 -0.281582 11
1.900000 0.000000 -0.297225 11
2.000000 0.000000 -0.312869 11
0.000000 0.000000 0.000000 12
0.100000 0.000000 0.000000 12
0.200000 0.000000 0.000000 12
0.300000 0.000000 0.000000 12
0.400000 0.000000 0.000000 12
0.500000 0.000000 0.000000 12
0.600000 0.000000 0.000000 12
0.700000 0.000000 0.000000 12
0.800000 0.000000 0.000000 12
0.900000 0.000000 0.000000 12
1.000000 0.000000 0.000000 12
1.100000 0.000000 0.000000 12
1.200000 0.000000 0.000000 12
1.300000 0.000000 0.000000 12
1.400000 0.000000 0.000000 12
1.500000 0.000000 0.000000 12
1.600000 0.000000 0.000000 12
1.700000 0.000000 0.000000 12
1.800000 0.000000 0.000000 12
1.900000 0.000000 0.000000 12
2.000000 0.000000 0.000000 12
0.000000 0.000000 0.000000 13
0.100000 0.000000 0.015643 13
0.200000 0.000000 0.031287 13
0.300000 0.000000 0.046930 13
0.400000 0.000000 0.062574 13
0.500000 0.000000 0.078217 13
0.600000 0.000000 0.093861 13
0.700000 0.000000 0.109504 13
0.800000 0.000000 0.125148 13
0.900000 0.000000 0.140791 13
1.000000 0.000000 0.156434 13
1.100000 0.000000 0.172078 13
1.200000 0.000000 0.187721 13
1.300000 0.000000 0.203365 13
1.400000 0.000000 0.219008 13
1.500000 0.000000 0.234652 13
1.600000 0.000000 0.250295 13
1.700000 0.000000 0.265939 13
1.800000 0.000000 0.281582 13
1.900000 0.000000 0.297225 13
2.000000 0.000000 0.312869 13
0.000000 0.000000 0.000000 14
0.100000 0.000000 0.030902 14
0.200000 0.000000 0.061803 14
0.300000 0.000000 0.092705 14
0.400000 0.000000 0.123607 14
0.500000 0.000000 0.154508 14
0.600000 0.000000 0.185410 14
0.700000 0.000000 0.216312 14
0.800000 0.000000 0.247214 14
0.900000 0.000000 0.278115 14
1.000000 0.000000 0.309017 14
1.100000 0.000000 0.339919 14
1.200000 0.000000 0.370820 14
1.300000 0.000000 0.401722 14
1.400000 0.000000 0.432624 14
1.500000 0.000000 0.463525 14
1.600000 0.000000 0.494427 14
1.700000 0.000000 0.525329 14
1.800000 0.000000 0.556231 14
1.900000 0.000000 0.587132 14
2.000000 0.000000 0.618034 14
0.000000 0.000000 -0.000000 15
0.099993 0.001178 -0.030902 15
0.199944 0.004712 -0.061803 15
0.299813 0.010601 -0.092705 15
0.399556 0.018843 -0.123607 15
0.499133 0.029435 -0.154508 15
0.598502 0.042376 -0.185410 15
0.697621 0.057661 -0.216312 15
0.796450 0.075287 -0.247214 15
0.894946 0.095247 -0.278115 15
0.993068 0.117537 -0.309017 15
1.090776 0.142151 -0.339919 15
1.188028 0.169081 -0.370820 15
1.284784 0.198321 -0.401722 15
1.381001 0.229862 -0.432624 15
1.476640 0.263694 -0.463525 15
1.571660 0.299810 -0.494427 15
1.666020 0.338199 -0.525329 15
1.759680 0.378849 -0.556231 15
1.852600 0.421751 -0.587132 15
1.944740 0.466891 -0.618034 15
0.000000 0.000000 -0.000000 16
0.099993 0.001178 -0.015643 16
0.199944 0.004712 -0.031287 16
0.299813 0.010601 -0.046930 16
0.399556 0.018843 -0.062574 16
0.499133 0.029435 -0.078217 16
0.598502 0.042376 -0.093861 16
0.697621 0.057661 -0.109504 16
0.796450 0.075287 -0.125148 16
0.894946 0.095247 -0.140791 16
0.993068 0.117537 -0.156434 16
1.090776 0.142151 -0.172078 16
1.188028 0.169081 -0.187721 16
1.284784 0.198321 -0.203365 16
1.381001 0.229862 -0.219008 16
1.476640 0.263694 -0.234652 16
1.571660 0.299810 -0.250295 16
1.666020 0.338199 -0.265939 16
1.759680 0.378849 -0.281582 16
1.852600 0.421751 -0.297225 16
1.944740 0.466891 -0.312869 16
0.000000 0.000000 0.000000 17
0.099993 0.001178 0.000000 17
0.199944 0.004712 0.000000 17
0.299813 0.010601 0.000000 17
0.399556 0.018843 0.000000 17
0.499133 0.029435 0.000000 17
0.598502 0.042376 0.000000 17
0.697621 0.057661 0.000000 17
0.796450 0.075287 0.000000 17
0.894946 0.095247 0.000000 17
0.993068 0.117537 0.000000 17
1.090776 0.142151 0.000000 17
1.188028 0.169081 0.000000 17
1.284784 0.198321 0.000000 17
1.381001 0.229862 0.000000 17
1.476640 0.263694 0.000000 17
1.571660 0.299810 0.000000 17
1.666020 0.338199 0.000000 17
1.759680 0.378849 0.000000 17
1.852600 0.421751 0.000000 17
1.944740 0.466891 0.000000 17
0.000000 0.000000 0.000000 18
0.099993 0.001178 0.015643 18
0.199944 0.004712 0.031287 18
0.299813 0.010601 0.046930 18
0.399556 0.018843 0.062574 18
0.499133 0.029435 0.078217 18
0.598502 0.042376 0.093861 18
0.697621 0.057661 0.109504 18
0.796450 0.075287 0.125148 18
0.894946 0.095247 0.140791 18
0.993068 0.117537 0.156434 18
1.090776 0.142151 0.172078 18
1.188028 0.169081 0.187721 18
1.284784 0.198321 0.203365 18
1.381001 0.229862 0.219008 18
1.476640 0.263694 0.234652 18
1.571660 0.299810 0.250295 18
1.666020 0.338199 0.265939 18
1.759680 0.378849 0.281582 18
1.852600 0.421751 0.297225 18
1.944740 0.466891 0.312869 18
0.000000 0.000000 0.000000 19
0.099993 0.001178 0.030902 19
0.199944 0.004712 0.061803 19
0.299813 0.010601 0.092705 19
0.399556 0.018843 0.123607 19
0.499133 0.029435 0.154508 19
0.598502 0.042376 0.185410 19
0.697621 0.057661 0.216312 19
0.796450 0.075287 0.247214 19
0.894946 0.095247 0.278115 19
0.993068 0.117537 0.309017 19
1.090776 0.142151 0.339919 19
1.188028 0.169081 0.370820 19
1.284784 0.198321 0.401722 19
1.381001 0.229862 0.432624 19
1.476640 0.263694 0.463525 19
1.571660 0.299810 0.494427 19
1.666020 0.338199 0.525329 19
1.759680 0.378849 0.556231 19
1.852600 0.421751 0.587132 19
1.944740 0.466891 0.618034 19
0.000000 0.000000 -0.000000 20
0.099972 0.002356 -0.030902 20
0.199778 0.009421 -0.061803 20
0.299251 0.021188 -0.092705 20
0.398225 0.037643 -0.123607 20
0.496534 0.058769 -0.154508 20
0.594014 0.084541 -0.185410 20
0.690500 0.114931 -0.216312 20
0.785830 0.149905 -0.247214 20
0.879840 0.189425 -0.278115 20
0.972370 0.233445 -0.309017 20
1.063260 0.281918 -0.339919 20
1.152352 0.334789 -0.370820 20
1.239490 0.391999 -0.401722 20
1.324520 0.453484 -0.432624 20
1.407287 0.519176 -0.463525 20
1.487642 0.588999 -0.494427 20
1.565437 0.662877 -0.525329 20
1.640526 0.740726 -0.556231 20
1.712765 0.822458 -0.587132 20
1.782013 0.907981 -0.618034 20
0.000000 0.000000 -0.000000 21
0.099972 0.002356 -0.015643 21
0.199778 0.009421 -0.031287 21
0.299251 0.021188 -0.046930 21
0.398225 0.037643 -0.062574 21
0.496534 0.058769 -0.078217 21
0.594014 0.084541 -0.093861 21
0.690500 0.114931 -0.109504 21
0.785830 0.149905 -0.125148 21
0.879840 0.189425 -0.140791 21
0.972370 0.233445 -0.156434 21
1.063260 0.281918 -0.172078 21
1.152352 0.334789 -0.187721 21
1.239490 0.391999 -0.203365 21
1.324520 0.453484 -0.219008 21
1.407287 0.519176 -0.234652 21
1.487642 0.588999 -0.250295 21
1.565437 0.662877 -0.265939 21
1.640526 0.740726 -0.281582 21
1.712765 0.822458 -0.297225 21
1.782013 0.907981 -0.312869 21
0.000000 0.000000 0.000000 22
0.099972 0.002356 0.000000 22
0.199778 0.009421 0.000000 22
0.299251 0.021188 0.000000 22
0.398225 0.037643 0.000000 22
0.496534 0.058769 0.000000 22
0.594014 0.084541 0.000000 22
0.690500 0.114931 0.000000 22
0.785830 0.149905 0.000000 22
0.879840 0.189425 0.000000 22
0.972370 0.233445 0.000000 22
1.063260 0.281918 0.000000 22
1.152352 0.334789 0.000000 22
1.239490 0.391999 0.000000 22
1.324520 0.453484 0.000000 22
1.407287 0.519176 0.000000 22
1.487642 0.588999 0.000000 22
1.565437 0.662877 0.000000 22
1.640526 0.740726 0.000000 22
1.712765 0.822458 0.000000 22
1.782013 0.907981 0.000000 22
0.000000 0.000000 0.000000 23
0.099972 0.002356 0.015643 23
0.199778 0.009421 0.031287 23
0.299251 0.021188 0.046930 23
0.398225 0.037643 0.062574 23
0.496534 0.058769 0.078217 23
0.594014 0.084541 0.093861 23
0.690500 0.114931 0.109504 23
0.785830 0.149905 0.125148 23
0.879840 0.189425 0.140791 23
0.972370 0.233445 0.156434 23
1.063260 0.281918 0.172078 23
1.152352 0.334789 0.187721 23
1.239490 0.391999 0.203365 23
1.324520 0.453484 0.219008 23
1.407287 0.519176 0.234652 23
1.487642 0.588999 0.250295 23
1.565437 0.662877 0.265939 23
1.640526 0.740726 0.281582 23
1.712765 0.822458 0.297225 23
1.782013 0.907981 0.312869 23
0.000000 0.000000 0.000000 24
0.099972 0.002356 0.030902 24
0.199778 0.009421 0.061803 24
0.299251 0.021188 0.092705 24
0.398225 0.037643 0.123607 24
0.496534 0.058769 0.154508 24
0.594014 0.084541 0.185410 24
0.690500 0.114931 0.216312 24
0.785830 0.149905 0.247214 24
0.879840 0.189425 0.278115 24
0.972370 0.233445 0.309017 24
1.063260 0.281918 0.339919 24
1.152352 0.334789 0.370820 24
1.239490 0.391999 0.401722 24
1.324520 0.453484 0.432624 24
1.407287 0.519176 0.463525 24
1.487642 0.588999 0.494427 24
1.565437 0.662877 0.525329 24
1.640526 0.740726 0.556231 24
1.712765 0.822458 0.587132 24
1.782013 0.907981 0.618034 24
